NCOLS 176
NROWS 32
XLLCORNER 517934
YLLCORNER 286666
CELLSIZE 100 
NODATA_value -9999 
856.216847508611 824.064801562812 774.026142967643 746.498859959735 723.462532565174 679.788270468349 655.003874056343 618.634625384974 596.057270901322 586.962351486196 564.584690379438 563.058303763566 563.536545393785 557.008122684756 549.46863736716 538.365013130074 544.936458257142 563.719072740251 569.5386704147 565.369145368232 563.392071273044 560.188970728928 546.485217242327 542.727554016724 541.33088361847 542.539433993641 553.027573296848 573.913192388222 588.109694153196 611.031860827039 629.638009609396 635.510734682464 662.454731357607 701.817797123254 745.037879551194 782.010202257249 804.471987844708 830.610299987649 814.025618134497 765.259489532813 726.657720030444 693.436003372649 659.600345298368 622.926810497738 595.890598622972 605.158674132739 611.322290446025 622.047637136685 628.995531605895 634.083788897804 634.900950386774 633.690514850166 632.389029092745 626.944481118841 619.966609363686 618.606454643962 622.749641387084 641.730000709548 663.001055035707 690.101324396796 705.045450142142 725.802438937764 740.642685988603 762.649209313863 786.042270320658 796.37789846851 823.24686143809 827.453612206701 846.590157198029 858.000277228989 863.917542497852 864.663430926557 884.521901762935 901.048631755898 916.087007415323 911.400587129607 930.734029256965 951.149165592115 986.150073418949 1024.14612464149 1033.40694590837 1063.98399533306 1082.15358835349 1116.69453723272 1132.19805150659 1154.88309219512 1176.68344106563 1152.93322035588 1112.07604225105 1086.08127866518 1090.99896261607 1084.59262329794 1088.99925516084 1083.78512394452 1076.36399129365 1109.92306618639 1128.29644758584 1156.26968836344 1199.8507401521 1200.60707249148 1186.7997207246 1197.14664449654 1199.86095351064 1168.89398480463 1129.00328670277 1129.63894593967 1154.44745977963 1165.02402519554 1187.25108081025 1216.03489949753 1178.03893190645 1138.43436805727 1119.4382753764 1106.88768911854 1111.88727864487 1117.90036773989 1129.71904142213 1134.20455608283 1120.34546382719 1127.0765657204 1098.84054644207 1077.98469651042 1121.63802218766 1158.02721213441 1157.40912175534 1109.8128131959 1077.24396812697 1089.93374050657 1094.60595750953 1116.68333841526 1155.55678894396 1187.65410463152 1187.82032369769 1204.37348895845 1229.12588543283 1202.72019547958 1150.0253287739 1099.06279900909 1067.20101517107 1054.7194315944 1058.9417772981 1072.59198195576 1035.08189112302 990.634190624344 951.869142796185 936.071874363882 940.44130746744 999.168888255762 1022.46234814164 1049.92924571646 1084.5567590979 1060.41468888427 1020.49983077525 977.745561423279 1006.95506365045 1062.68307830233 1097.51129071778 1096.41697647429 1118.03512328577 1135.57387725365 1115.65437727371 1083.23820890952 1053.48520595047 1011.57088746493 956.942855848444 910.460131253938 855.723233415649 813.5092054453 838.366780268868 882.482237536464 861.077950739008 880.378795934255 929.071455488948 941.266154912536 867.99622091121 846.487253172313
859.972218634252 803.282720548682 753.866249470958 727.418060024926 703.091709372537 681.549989637518 655.246161989817 639.676991590159 631.218460333269 606.016636419254 575.77973531245 576.152791171725 571.006910365598 567.865370253362 562.899734406186 556.445080062006 542.404579688789 543.385224405907 547.63054535421 545.314023617604 545.226656081554 543.193646693142 539.680982945226 539.674983468709 543.458448988405 545.177588051978 544.062932723303 551.750871700979 562.510213895308 569.991309610735 578.358579287914 584.280629186318 609.49507680501 644.679743252742 674.201518725318 706.098973187922 758.046746860943 827.031136124868 859.470894685704 847.397237841872 806.160665853875 770.367435709218 715.768745531027 664.179243147816 613.620860585974 638.557641722802 667.675064108324 678.732568445422 675.259925067493 678.115482156282 679.460273841562 671.478201170557 664.770055033517 655.337744668358 638.762860115539 632.861817158033 633.812439340706 629.218944896057 628.026862459598 637.081005603969 646.323951426764 655.220320740716 673.457136765922 684.819264227941 709.073782142567 713.42185384695 724.714218488282 742.07296012182 774.273190639645 795.341397936868 809.26230344346 799.316301305554 812.130472531806 829.53860346744 847.424338990917 849.801898591477 886.160936537423 887.580610110584 936.447090615878 971.630689036672 973.793604844103 1002.40442284899 1026.15357193082 1052.82357182042 1070.7642329457 1096.21317238776 1088.24259997956 1073.0165706868 1054.82316709311 1023.83204333312 1020.23107479586 1018.32720640154 1026.29263505014 1028.93654448393 1047.09559962499 1065.64903676443 1091.43224191811 1143.25484443693 1191.6381632426 1198.07827613782 1202.51454464184 1210.19247725332 1189.51262233037 1152.62055031857 1129.84888852176 1146.92016279598 1180.17609057104 1196.89139506145 1192.63672815245 1186.19430743657 1151.90095947625 1128.68250852111 1118.72959629228 1113.67039180306 1141.56733597 1161.25605021425 1160.11225729094 1136.1136684745 1147.83950420078 1148.05903797019 1106.20146962423 1087.53279067431 1130.40436863237 1175.19388804971 1179.90311737909 1138.34872051998 1132.67426825416 1127.35484131348 1110.39072513046 1097.99215553981 1129.6105452755 1151.29903571178 1159.07422738505 1185.29312356227 1219.54954010099 1218.64793462914 1154.36524985418 1080.04539837606 1045.14507574235 1016.57855614745 1028.90773401678 1038.9591465605 1002.03982590615 956.25515119539 941.099389043992 962.016744014074 984.568667287808 1017.95156440537 1067.46518306746 1090.70898712576 1110.1863498355 1077.20454498191 1044.06656799607 995.511754216099 1001.03727992504 1042.71962263204 1060.56919990666 1064.63716463232 1089.09356587525 1094.92551156778 1063.25823987422 1025.158292954 993.016109017933 962.629267583627 920.645930550137 872.348900293476 831.805764420811 821.57210598747 874.634493715311 919.590593807554 908.080583007806 934.936687367237 973.769392861607 944.827365755622 873.112989684605 885.605185445428
817.481640912629 780.335360276879 747.540612205977 734.571626043094 747.259915399524 736.793116791742 704.140347660165 677.183852281816 642.242743330294 606.938978415609 587.295044322686 601.361403123625 598.253419283156 578.577679216222 574.65785699921 582.726365753603 567.259870227726 553.771506477643 548.089600124355 540.102245599453 535.769409417143 537.119396315057 537.546263852398 542.156437865683 547.038020470639 547.953799841477 544.274401422071 546.491852800082 550.274638110206 552.300266520375 551.791297807461 553.41546863907 560.417040230238 588.794651408141 617.515694195627 659.936743943317 727.653311062136 796.119824591928 846.264389962813 876.524033386839 846.936309840255 793.301457345404 740.730711234281 675.485452258191 614.498509622786 644.230965883761 694.943617103315 720.584313702981 722.58441656792 721.043201101225 727.254302404774 719.105808859412 709.044552146407 696.102340191184 677.183777604445 677.700672819902 674.946068875623 664.056717907996 650.712288892418 635.936085517779 627.796772047457 627.800576088712 632.340107309423 636.327438592439 641.043801913919 648.276795667264 655.293926452862 662.869037380605 692.853560684885 722.170450425125 740.891114301147 727.150527968837 739.08667635235 766.007550313921 769.825776644648 785.545653995063 814.636573285846 817.219529281667 865.714027077392 899.22684161216 919.551482148642 934.189721115702 959.60177226078 990.62656863923 1018.74804419718 1035.86750093363 1020.62312637354 999.874187173095 989.443907472956 969.859302738147 953.695963420845 958.396642920345 975.358358763804 990.293282816527 1013.89031313763 1042.50946848659 1104.92995538018 1158.10931131389 1180.68943984216 1192.30483085303 1221.34506948169 1222.67400456768 1187.24743988083 1154.60946700972 1135.6488595875 1150.06000476796 1181.42490390733 1206.52740799985 1191.85926759077 1151.25005694092 1133.78440682358 1131.04415705096 1120.8296196465 1128.64172916673 1176.82948442917 1201.56092365632 1181.23374719584 1146.8144770371 1180.31134107734 1166.11436249152 1125.61542026155 1099.56259740439 1148.94115153189 1199.0489264938 1205.29638509254 1170.70554637235 1179.364568046 1181.29164515204 1153.20282838444 1114.68411152839 1104.45028804069 1123.02048669388 1145.70552247476 1173.86005228826 1200.33123274989 1176.82262902223 1124.93659221473 1060.77154509614 1015.48878399034 990.813441689108 1006.70304636161 1003.44502480994 969.742071745955 938.303757242221 969.801063153883 1030.67197845893 1054.4971711626 1074.93232339342 1112.85051581759 1118.53433653812 1135.46625257636 1104.43543926597 1050.11832025738 1014.7920675978 999.826627282919 1009.19365820421 1028.5274034335 1054.56772319896 1070.10367705186 1055.1482601485 1018.55331103212 980.972637725013 948.617737321796 913.189462008258 878.232044959568 839.6521625064 824.527409726768 841.780344913339 898.273609244968 951.021797967743 971.665830013235 986.70799865336 967.589328881303 925.432138250185 876.676245847898 907.154248281764
836.732577743949 813.378552555258 766.752184104218 780.657248553798 807.447975735042 797.755121130393 756.939342728387 698.096639279859 661.211494966282 629.18151161035 620.545666298088 632.408958780781 620.340682810844 591.38592677651 584.80277539501 601.889937243223 595.560738485617 580.782927886799 574.766022302611 564.191229635161 549.826293000687 544.631387056329 548.083400205094 557.225089196334 554.685501270515 548.673710173425 545.502536835201 547.895746274578 550.749467887247 557.622924286094 568.122264088103 561.826513272097 552.599192106809 562.691643722742 581.706019906054 614.584347959891 664.863029163853 719.738977869722 762.14336257404 801.546774628077 803.859740469498 752.074277653228 696.981149878759 632.665521263272 601.224371724755 622.467276933811 657.706375185101 690.369738746801 717.163318358711 737.457437434628 749.76795724702 746.917043692889 729.496590248412 711.61930611441 696.813106858911 699.458105541346 706.018131502195 705.132698240505 697.10909557025 675.878498491959 650.100025817435 639.604565721685 633.958882627579 637.192445167639 639.804993657234 641.092571259065 641.789407277197 644.125758930526 648.099465743241 656.73910438414 667.567186380391 677.435675499649 707.218901337313 717.115851737333 719.857473125837 733.094242818644 753.668267213549 783.673520784951 818.829867918868 846.001321199134 863.654641119826 878.340768622371 906.793648723071 946.6140035994 968.311952703102 962.922870915373 946.149891115842 930.981752065004 922.966620145866 920.263397996645 951.446501038749 997.145420009781 1013.25796311737 1017.47676125478 1021.21792496993 1040.97921839124 1091.88184459833 1125.62489810872 1134.70422260854 1174.59936546052 1216.63880221291 1218.76148829969 1194.41781618897 1173.34300193978 1147.14822942233 1150.97497810191 1176.67035429333 1190.2464361085 1182.94164518974 1156.70502275451 1151.58087553248 1148.9558504719 1132.24145938085 1136.92151375238 1184.70677937726 1212.88035116297 1190.37238211879 1164.33667175635 1187.62791218502 1183.04877912727 1146.37934810704 1119.58005121819 1160.21570441431 1209.91451015633 1237.24859681565 1214.47230043055 1213.17021964374 1204.01080017991 1155.74651345067 1129.2795735478 1135.70174532477 1170.25021048176 1191.47103915919 1191.44409410338 1159.30539906659 1104.80027710291 1075.00921944861 1063.63466302025 1010.61424861884 972.855301269334 974.722904503294 968.185216847474 940.992008247059 958.537912338334 1012.71929138378 1071.82654143203 1107.43413668977 1138.23659532069 1166.44591633674 1155.6946124728 1153.47540609176 1103.14984395992 1059.8907273828 1041.57385276915 1008.52913145429 1009.97822210856 1023.77918073813 1045.7889787902 1059.40761371066 1038.1622141293 992.297769268636 953.610293665295 924.410930182936 893.175049135398 862.031385155669 835.502885797032 868.611489607032 872.621663261973 902.785556545232 958.755393604687 1014.83544820573 1002.28466227425 933.122025890743 893.274925815774 897.713847669264 947.546330990006
872.325233691856 816.871448797611 786.877252678362 827.633485983654 858.358745544835 831.809692699738 783.464711292307 732.193149669205 679.790240900797 651.785466380607 667.637561458892 654.770574224964 635.713042490486 611.921070985963 594.894858635657 615.422921783219 630.537179830788 609.720090839397 595.225595741541 584.836128853658 572.795367420836 569.189295340448 567.052543736676 565.029433300064 559.264660113492 550.62026176103 548.853473596058 560.224070795568 567.832802968421 573.042322745846 574.140101065544 569.359421707028 562.409786685984 556.663045090704 556.766460467467 569.12127346188 595.730983444779 629.264955752847 659.377693634269 693.616108870447 708.545345362182 686.711111137774 660.439578297587 619.279384596527 604.876674620132 629.976372943687 660.348756971247 687.112996707192 708.924548797199 729.021583552388 736.791542881489 728.684562295282 712.998995463901 698.4212087166 686.292366119381 680.976323130097 684.76206689902 691.023565538684 701.060242621148 700.431799074775 684.190214494101 673.837788664932 668.982963370166 675.526110880076 679.401774194707 674.166454863002 665.041552097519 657.947125449919 651.007834102753 651.294812580909 656.700268825826 673.81477268708 695.605198149528 712.800906230852 727.038325191222 738.318628715288 750.900614459981 769.795357973535 793.079144077199 816.495533176395 846.86574680038 879.121600443202 888.397098136259 909.09347793131 918.607583404554 899.351670118218 869.755923790007 866.805136939699 890.810011853978 944.601809107397 1006.51982358416 1056.71065032585 1079.83704960721 1086.68238885639 1064.79662679847 1045.90026698153 1074.02682696401 1089.35636721885 1110.32573350845 1148.80473467138 1176.93597352556 1195.77052060181 1199.9775154842 1180.71200245107 1158.24702182577 1162.11759355267 1178.50883010171 1187.03603402586 1189.23055415072 1184.52911949984 1170.56700465441 1150.92526126999 1150.14039410534 1147.09253754822 1173.67738223536 1211.2366855804 1202.20542525353 1186.952905872 1194.51608515168 1172.74534361813 1138.21496681181 1130.55117302 1164.8126137029 1203.54470145786 1239.49235063308 1251.53466698091 1226.41014304508 1192.76501313846 1165.42191896625 1165.83611659703 1161.90848780567 1193.01820540138 1203.93438650553 1168.46476018339 1121.49521159441 1066.17617145852 1035.59069540563 1018.70426101903 987.30271391842 963.345155552541 953.168618251571 946.344035872802 944.051396909421 994.137744006793 1042.08854115802 1087.03873465957 1130.64834176085 1160.91124422827 1184.86364520057 1182.19281103914 1165.01197316511 1123.53896858002 1086.56719323841 1044.83686681433 1013.48161564921 1024.77456079036 1045.08073469166 1046.37631891049 1057.2229199105 1055.49096794004 1015.67623717792 975.393782424785 950.003415106691 926.504106059713 889.530292261855 853.051729031359 898.544975748383 909.68214750501 927.499147547268 984.277079162358 1016.97271619515 979.137235514631 920.43460154844 940.816635130431 953.99087714314 1000.88638082816
881.867887087146 817.702845526546 823.496546843752 869.222313675184 894.447339440137 869.982284523281 825.141542686676 766.996945883173 697.781740557394 701.822454261582 695.428267148353 676.051857103865 657.777380117386 636.336892768712 607.042612643761 620.045502755982 658.927698511076 648.473427848565 626.853353756197 606.667633866929 589.617569705966 582.934377346001 578.617398271536 574.980534740699 564.867633479829 553.16810144714 551.683243065525 568.275654179012 578.764146587653 580.082938196134 580.339469776751 580.519430147901 577.915819221066 569.451487000779 563.034082049775 562.103221500644 573.544138841744 585.536423620363 591.819284756925 607.87635886967 618.909199913266 619.586534558487 618.209005516889 606.200018400595 601.407984317705 630.070137905724 648.961819527656 655.330031574964 667.795206835645 692.129707672039 706.710894278117 705.98294962984 692.538987033545 681.87533174584 668.238093281497 660.237096039847 663.301244599642 663.996073144883 671.987593356339 679.764845637357 669.850056070895 658.550035309707 663.468343634033 675.342811874222 684.802445395545 680.82078934575 675.259095364184 670.091020177358 662.228204930125 648.329500370771 655.568354043352 696.233182220101 728.978614954314 740.54584694671 757.428057449617 773.771677081346 778.607981535327 785.19214402123 803.051582417597 817.242771235492 840.270320044306 858.738018552161 846.983511637742 862.160340507496 855.056503492027 837.975170349931 826.295428363427 859.572627527774 919.111325624322 992.96064345044 1054.66043143708 1106.12395801961 1137.58559342911 1143.25530308623 1112.71469742329 1087.60234780253 1071.15947979155 1089.70297880398 1104.22384985121 1114.96595495121 1145.72604901178 1177.8556008057 1198.73737731964 1181.85346333393 1164.17584143917 1162.18574872838 1186.74243104499 1202.48114347725 1211.59961801615 1196.09066938903 1173.98389433827 1164.79174791891 1175.42870605872 1166.93662142241 1168.9542325142 1199.65169990971 1215.09532805771 1209.74748514921 1189.85911356722 1161.08290742503 1132.75242327422 1131.52512654665 1163.18438883576 1187.56615503162 1217.3678641258 1242.29151681954 1222.4553424163 1198.74226145963 1195.21315108191 1186.08970604411 1185.38841817749 1181.85098341309 1172.58498957357 1140.30516756257 1108.41223187627 1056.25935500911 1010.11194257556 976.621195954618 972.405042276388 973.903576713542 972.110624014065 968.70426897809 949.222480886878 994.953285097868 1058.84563121889 1103.98107718269 1143.35038083768 1174.08420580712 1190.58855970466 1194.7104528486 1158.15435926462 1119.50986407144 1081.80666074727 1045.82528423928 1015.27392672888 1037.47314429338 1077.76590770468 1086.5661892591 1086.6954800205 1092.44257259754 1061.29918247412 1033.75462025032 998.254452230997 941.605839253754 884.894118338976 881.771668306188 909.091488074101 938.082308103351 958.857687288225 1018.73577838054 1031.19503133552 958.268603680866 937.9830109065 975.653137179099 1013.2215410237 1054.94225191006
865.038746182378 832.645297491995 865.036675579801 906.20221793157 938.98809252835 918.678064931851 843.79058173847 770.622580905915 721.016048496853 755.938985589778 742.011769710554 713.536732146429 686.611234310985 660.370118957647 623.824404258135 622.657486309495 667.864118819457 677.58260709929 659.501496053286 638.378524703044 613.532900083526 600.813406647303 589.711741862375 582.174073911773 573.903187315933 557.344164393792 554.938106095143 565.976181236623 580.664879517479 581.741482732749 581.989577934137 581.792537630541 582.068418626134 577.67553787641 562.283141910016 562.874199008868 572.592844361146 570.101241531568 566.168790163658 573.324086436902 581.690731301263 586.542712065423 586.579460690134 583.684313164261 584.54087699239 590.841323301614 595.788622352996 600.265546194706 608.230454148092 623.685627075695 646.438734406145 654.47520207548 655.784045186567 658.64536862054 652.40383979531 643.265110482717 650.868071782993 657.52007455309 646.778643382808 641.369219611642 637.202050487949 631.151349971921 628.628098861713 631.767374234808 637.888462918053 639.136513992176 639.155066894527 639.22855294757 642.010306006843 642.703460042222 652.482504158552 690.35084273631 729.467667605012 767.616768239865 803.247695896256 835.45221449415 833.839537814564 822.593075284476 822.479067724227 807.845466152369 797.367507060186 794.571762082802 796.44047509558 808.669091060203 804.413718103058 794.664652877327 829.076193518926 871.35546689589 943.392151849509 1020.73133261825 1082.14813288501 1118.37371101157 1157.17182123667 1184.11187460794 1171.23702261718 1142.5896676852 1103.13397811223 1112.85771520422 1141.72312215307 1125.05650873028 1141.07076455513 1173.22070188379 1190.26930955114 1194.80184356414 1171.77373673411 1165.81285565785 1183.07607154631 1199.02646959547 1212.60815380498 1201.22934248259 1199.84444642486 1196.07023794302 1204.85190252838 1192.01013165936 1190.73455133458 1212.60351823358 1220.2886570279 1197.60691982676 1167.46416108834 1156.1542457284 1152.40118912622 1134.64908948571 1148.55751275661 1180.61556337097 1206.16474153175 1232.960972556 1234.16500068911 1220.64658213527 1217.38488299764 1203.99002952848 1182.92167230658 1144.77948052168 1125.30620108966 1102.66363459217 1071.48880505161 1034.10773071893 992.079733476632 975.088624032822 1003.09024805656 1009.77571982113 1009.11045527413 1007.30034788367 969.637564435449 976.799301269109 1033.87040340603 1078.53586375201 1130.39399520731 1176.1853544066 1214.35574826948 1207.2115826731 1160.82005994093 1113.04300152988 1068.82141482318 1033.04370852845 1021.81333090335 1049.76601430426 1091.0970383842 1130.95844881642 1136.19544455146 1137.07089042542 1112.50533282025 1056.95359635022 975.621620824285 910.812216835474 898.485182641273 929.760538257599 934.244835545485 969.783024378034 1005.13191823188 1055.03371811959 1057.12786193568 975.966009465195 968.331235377616 1021.00388012597 1064.16980805022 1111.04131443924
882.112131835089 889.42676600798 915.384464693448 959.169594376047 981.084923856022 942.370219452001 860.218141465976 781.173102393678 750.257617614834 792.752390532859 787.981543869035 758.616232888492 720.762956951713 675.345357869303 637.021028379351 628.788721659675 671.61021884699 709.491810975522 699.125179396057 680.222909828612 649.104470850012 638.946870623401 621.70166389708 605.625735541294 586.055106296776 566.175353134834 557.836954596403 568.985664100632 582.858518310659 583.048408348885 582.366080393552 582.628239728148 582.223254769659 563.543009753078 559.029749803687 567.043386275703 568.469527625323 566.271116171982 568.259243871676 565.762508095943 572.166706383193 576.539213571765 579.482551996776 578.97017052751 579.353741580446 581.75553673222 583.836601736225 587.797892307579 590.112097717444 590.177076229237 597.231318221103 613.029224588541 624.32220921621 627.31319294754 626.178347859265 630.296825275537 639.079312286778 637.811552908853 623.376076906749 618.245626549617 617.459556599889 617.429226334576 618.650883333399 620.569877046043 623.29963301508 626.78696321642 630.210551532316 633.876300751914 636.712839841055 638.222967387351 639.427303501279 651.630090024822 697.139277787187 747.567085741625 794.689232921816 838.408421142142 870.728363711327 848.198640233479 815.843604790533 784.467786391595 764.006183428931 743.611673355347 747.593163043655 759.856900647619 770.752244690265 790.340639084088 841.526241939503 887.655815053996 964.585481937069 1038.84057392666 1089.88682372479 1124.5855387769 1164.1543295204 1206.52815754635 1201.64646373939 1161.79118784956 1147.02935141101 1145.03384827977 1177.13409783142 1165.81981011527 1155.15526478437 1166.19358225251 1188.97800112951 1191.79811005808 1164.58328352699 1178.6403141271 1180.63305251357 1196.47007161299 1215.93840766762 1228.83596646149 1237.92337703504 1239.66913828033 1245.20232149893 1227.3834908964 1230.25665514492 1237.07200119959 1212.89551412102 1184.26601651727 1177.06596944033 1175.186391615 1172.83358640608 1160.94277066824 1149.28829596951 1163.14303111355 1198.3005726097 1226.72159185793 1245.31489987975 1239.74978910993 1232.05888668932 1197.12270522465 1142.07822945631 1094.19759833565 1066.61191388741 1042.60544862017 1020.49430665697 1001.34346812577 1005.52786132162 1020.24062345297 1033.84683394753 1040.28688422619 1044.70416120542 1031.76721341768 972.750510616954 983.407481313007 1028.98558107174 1068.4589314944 1110.51097269347 1165.52452637773 1216.54536050388 1224.75698780676 1186.78987428126 1144.01416775875 1090.70041997137 1039.78180682142 1049.11732187902 1080.03633914603 1102.34103156208 1152.64562755987 1174.80274524087 1156.77145716023 1124.53014993772 1059.78421337521 991.633488940964 967.744116015304 961.380440264448 978.372988634556 993.865583592377 1024.76799189554 1061.0703956088 1108.94500969817 1092.19663974366 1006.32344248613 981.832110327594 1014.40076289131 1074.55065358385 1141.33325819845
938.305128213879 952.180794802964 976.468603179452 1009.77785633841 1005.03839862441 937.89264213524 858.396156112856 790.812780992904 786.840730176809 834.077499996543 827.251708581387 802.948886005281 768.811148013913 703.574450805589 656.53726310059 636.901136187425 668.670808907416 717.935149705856 734.392479928656 711.345625354521 685.700534327627 673.612532875495 644.858960894547 620.236566298763 595.555791320307 573.569942063303 560.507104626714 572.859695366313 585.363376205199 583.529412612386 583.077509443392 584.066591612594 584.485186069557 568.585588958415 566.491438973753 571.552675509092 581.409315091922 582.451977149924 573.834766269247 570.09465388022 567.587994275128 568.743717010365 572.989661960269 576.466516978242 577.755566129945 579.487802960416 580.724190478529 584.298989293094 584.30826724351 583.116867078891 587.047324732528 597.429593480282 608.533137861237 613.804604432172 618.488915388655 626.240137391486 631.354179862623 623.039341633674 615.17141945292 614.031697554304 614.408871110246 615.967925370613 618.069623120213 620.208962238682 622.671457661787 625.575260487349 628.523330956013 631.569295969787 633.63136279795 635.281607831934 637.890953753614 643.006872381677 664.860610633953 703.587862030904 744.995905108381 783.000641696602 818.34791491223 813.724952365468 793.48642232364 768.974733863908 741.911474310225 742.175833690518 767.346965681702 783.711506060188 796.727378053448 806.566848009498 846.836466727386 890.968157344703 966.835953887163 1037.18293166135 1077.03157678177 1110.87124678361 1148.49388561597 1190.91305953547 1208.60953367168 1193.79826909791 1199.92894862595 1190.18124026559 1197.11113621077 1184.71988468776 1179.15073744758 1191.82505556448 1207.21155907492 1180.16527991728 1142.70966040878 1149.05646752769 1163.36135624314 1199.9532453184 1228.46513199259 1249.00296730287 1266.39575584771 1280.06226723787 1284.58780099082 1275.60212960545 1272.99546939537 1261.3951939047 1236.22205306245 1218.70849742162 1211.28453911432 1198.59684664821 1202.62758908834 1197.62068377661 1171.43051606501 1168.71002640679 1195.74917602139 1233.71699491264 1251.83604679564 1230.01895052655 1227.97184888583 1192.83139579463 1141.50491906302 1087.29576120329 1046.2251778274 1027.25237728275 1024.47990444945 1037.72920632701 1059.76210483573 1067.0256909132 1064.40818352227 1075.29229166728 1075.6404406883 1048.61465295613 986.133510670121 1005.12034213829 1060.11583212975 1090.3342343608 1129.33973368788 1174.77219210644 1203.93965325299 1209.7271203984 1174.96959519467 1135.21702408215 1093.73184645557 1061.67698664243 1071.33275293555 1112.36624123662 1144.42508514289 1178.6392725938 1182.46752957541 1134.22958915321 1095.483214274 1064.6370482456 1058.73988333641 1061.55471918977 1034.77827874169 1038.16973682548 1053.1771094144 1100.65778823436 1132.01179738558 1160.37699971812 1102.60222727077 1034.87119823207 1021.78496798915 1067.69137042803 1122.3879696315 1184.40056475351
995.83605679327 1006.67205643293 1034.73564188648 1057.01644821308 1030.30323726419 967.111025621976 882.981528429896 818.089884189279 804.106863906898 849.678336173591 854.685517040222 836.252005831538 798.20543793438 731.329324757352 673.518698367913 652.332846269438 669.668052578627 708.160703831486 744.836272120018 735.195573805302 710.766127651963 682.464484980172 646.626577377792 619.318915628191 597.719519320999 573.569327030986 564.35381514808 577.162515333632 584.323449032953 584.366591991397 584.406665880539 585.313985044781 586.281775549697 583.485944415061 582.155281551893 585.488620430629 590.879858332703 589.604609348474 578.399850395523 572.798172392761 567.860406244484 568.941816038358 573.715586481976 576.452378933921 577.283711624465 577.417077392951 578.544606518571 580.551669765896 580.883447684265 581.448577603796 585.456588143715 591.410742438224 602.959557653012 614.918626814355 618.328467188599 624.736324377843 624.104003677757 617.006733924432 612.628541658387 612.046065903234 614.635059460265 616.261230299179 618.016267895498 619.795322532678 621.938702423404 624.434073551802 627.18205883376 629.622246302069 633.223595506806 638.658525658383 643.432947783185 642.900534291781 648.741693903546 668.972583495779 697.643769024648 726.215762124996 750.6141362929 761.802206636331 775.549954995839 773.093671342223 735.018174361075 754.066043851318 801.352076317657 824.868766566613 836.721341172536 838.939191895121 859.819780103495 896.929794328772 945.935672280333 998.470603785726 1042.84205426835 1083.98389337111 1124.50769799535 1170.52826379903 1223.94801585571 1240.45494792939 1233.60299636224 1207.05031542834 1182.65381901677 1152.42430314934 1149.36687995081 1178.12232973151 1196.61595086134 1165.39467264557 1123.65474935364 1125.01727766063 1160.78513178008 1194.50678629065 1221.44331300376 1245.22718009577 1268.7115219914 1287.5563839097 1300.241360871 1308.87453085524 1312.71367416286 1298.53098916692 1282.34786158722 1259.672357214 1247.68348864423 1229.73043908545 1237.16013527233 1210.3037961454 1186.2744984718 1201.16710829605 1221.89606062044 1233.75213133858 1230.95182604558 1213.6986906642 1205.93839627082 1199.32684249954 1164.14503560392 1117.47307511463 1091.2098183628 1072.6489791942 1081.23408446205 1097.20117322033 1107.51590295009 1106.38228275399 1095.53291671319 1091.21253729926 1073.17190614653 1035.55184653979 986.691122470562 1022.16504490574 1071.83402059413 1110.55923895211 1136.00833309445 1146.06802404523 1160.71507910548 1166.93534954269 1163.65240282484 1144.48637101556 1111.32441040281 1082.90321202917 1092.49839186322 1141.63924907295 1188.56647779757 1209.3537249811 1176.41845212001 1122.64748403991 1079.40865180617 1080.71177907669 1112.79884254582 1125.35878956366 1092.95613417974 1103.26896591234 1125.43396009545 1174.35681217692 1203.51059657538 1168.15874536961 1090.09527760334 1053.28321834226 1051.62736341259 1106.36911157691 1168.48516542616 1224.36188356545
1048.7328214273 1067.8409685207 1086.85335543952 1085.45956400199 1032.85949431524 964.240653554134 905.97317023635 859.309343025629 823.12071260795 833.491712421219 859.67542570741 847.202652546374 798.293793480723 737.745088035201 686.917395995247 681.342790220408 696.423655399202 704.101219211195 741.132026635312 752.75936388363 729.548157027515 700.07989677592 668.937954041898 634.588658435125 608.170302022192 576.326160452556 569.708572394688 585.248472981663 590.316096720972 595.897987957239 592.647584349114 589.772423438116 588.166370552075 587.244914435619 586.504791634352 588.014227053997 589.803321048866 583.848007810772 579.277255714412 572.871765336292 569.431540758475 568.557869636517 573.920260442218 575.333116557875 575.492292774435 576.172473690712 580.78664407903 585.045193676978 582.731481741435 581.602080926054 585.77106045163 591.986284118337 604.454434149623 618.391939184926 623.799363189123 625.531996705698 619.483342508276 615.032832108938 611.551103291983 611.56406708166 616.748604752421 619.796349795221 619.748397512423 619.230448498193 621.26437229939 623.478091608173 625.975654645277 628.990102347756 637.859195985551 649.387828736508 662.636143639165 654.450070157663 647.353562024106 650.214257333243 660.17153285184 677.801402038344 699.053428284924 718.144259281546 741.716353206745 754.311318932866 728.708723394012 759.315293840439 792.378733463266 817.125991783239 835.596606916359 859.707312941983 906.654672155103 953.307310018904 993.614660274993 1029.50866619305 1066.36213054699 1107.16086288251 1151.50538226082 1188.66899532332 1239.98139810528 1271.12978124242 1245.39366684024 1198.69740032003 1156.28349940674 1122.17329172752 1130.58260076729 1173.02909419029 1185.47789952776 1155.84353992634 1110.86256332994 1103.65464190113 1136.86936700911 1158.6044148942 1181.10203093675 1209.90113836508 1239.57354541576 1261.32293367334 1277.0341049272 1289.85534833353 1300.18557206896 1307.23552596762 1309.02922949341 1300.43867948801 1277.7464155983 1266.93045470912 1260.59198431382 1230.35124451824 1222.55851001467 1231.0757386563 1224.97015285164 1211.41953273974 1201.13325669812 1195.4984529686 1190.99210262387 1185.48995374725 1181.2429190035 1168.33219853725 1148.20151595184 1119.14521246912 1141.71294124419 1156.5162719372 1148.84533832207 1127.04996819987 1104.01838813281 1085.06082845742 1064.90542353412 1032.3706732405 998.370324147797 1027.21981244357 1073.06651304439 1086.46179852926 1097.48384052898 1103.99956672515 1114.83045418592 1121.519867599 1140.76344071528 1151.19393793853 1130.03507997253 1126.54418954181 1130.02447274386 1152.09274102336 1199.96296140121 1227.21570747244 1189.43289936706 1134.45958416506 1094.63297216182 1121.55087434242 1166.24102534765 1145.79954730306 1121.69345718166 1181.44652991854 1203.2563766147 1235.60455912071 1219.50669231246 1143.5188021165 1093.95609084691 1095.89163270927 1091.29019777264 1111.41614436055 1177.44336176743 1250.61144309046
1093.62754130367 1130.91226176237 1132.92573917307 1094.12441978518 1029.88343259451 978.733852717416 936.775141601013 892.317068260601 867.970813287727 846.132556533191 848.927420071724 848.793023018212 805.47848149898 752.501866879473 708.472318121576 721.476101606729 742.128446963662 747.921638463632 754.111259408921 764.683792877314 745.563548459532 719.573045953436 683.145651564061 645.075514657633 613.042171524513 576.163114074307 577.922123249027 596.217454928692 609.148012732772 632.546063629452 626.098723785693 611.532393523553 601.563489452341 593.662101125328 591.804584018829 591.542815410518 587.983939599929 581.37272887817 578.370273186427 574.240572922887 571.241680592154 569.127622499765 568.930458186612 571.392497872668 575.643923174996 577.49636525665 578.553081179411 579.856557777826 580.45479996785 581.792176697134 584.272320432217 592.804271919095 609.118838815581 625.618059061723 631.882797827571 630.795125171278 622.624576509393 618.268034657733 611.770678081557 610.247111400977 615.719780868738 619.913665988434 617.381310295779 618.197560963011 620.229633614702 622.240586172587 625.773604837466 634.576106477417 645.522884937324 657.185441318259 668.597649694729 672.854163187316 663.7694025951 661.09840137234 662.352824741632 662.844948029571 671.626132207553 682.847959286785 696.245599098269 702.311393977581 718.642333482972 760.204560197638 801.338308563373 825.685794236741 843.445884737221 868.35039957267 907.737390713138 957.149073615779 1003.98659110458 1054.4235440321 1098.30021251788 1140.09266689358 1176.0715889046 1193.28223244348 1212.83679830124 1230.44327745151 1218.19639418197 1183.90953013217 1147.91577612205 1102.00158373308 1101.65735413198 1136.2462195802 1151.35889400507 1133.49107219831 1080.16347052258 1073.54796072699 1101.12127220753 1115.63133704138 1130.1825922458 1151.99150681303 1178.15623301869 1204.6314584391 1221.27879684779 1233.74201814864 1245.58126543146 1260.1845797539 1277.77230161451 1297.56829356847 1307.01348865955 1302.63358141336 1289.29670722601 1267.09306243719 1258.43440864434 1258.43158083063 1243.14868205451 1218.8658940568 1201.72352671538 1188.48995985645 1182.16749916455 1175.54103187136 1172.52006390265 1171.63216268806 1167.03049263077 1153.54174312487 1163.78306477992 1154.01936594538 1114.91671301815 1095.8789604789 1101.73604688631 1086.94500676819 1073.31499486944 1053.87369849085 1028.28257917838 1022.21896396797 1037.20689878998 1043.3833149426 1060.44228227421 1069.17649312879 1080.89075643532 1088.02522687305 1103.41529350651 1127.5783254974 1153.0252911176 1171.74307589 1178.73992610035 1196.65315573279 1230.62129585515 1256.63765557846 1211.08658807467 1147.62363419414 1123.59607173904 1164.58478203547 1198.67384101923 1170.91583380241 1189.24859811254 1245.72443112615 1269.39295439081 1275.89098933196 1218.38888738746 1143.66229305356 1139.91346164954 1147.1937401635 1159.02894128935 1177.70486631399 1199.20471225107 1244.772864928
1138.9296054463 1180.72868053777 1171.03284798614 1110.08198891162 1047.02151566708 993.194350113408 956.304293297135 926.711358782621 914.171587766384 886.760078503733 850.82292943378 850.122785263184 823.270364508196 769.76625701845 749.209411747367 768.236747571241 788.410952311068 796.371860609322 788.131856960392 778.795648833036 749.902223089833 711.632348206074 665.589159331413 632.763197144851 606.754089282874 573.890769616173 587.713855338142 614.242964407729 631.621282678728 663.208126254105 672.111564190987 654.019956623491 635.613327246935 615.603615222699 603.012434630034 598.913031445014 595.862878525486 588.624275155836 580.368023957755 574.607255374875 572.317326236696 570.66456790967 569.938273378344 571.977673538637 576.447285663087 578.369305364761 578.656237076648 579.016709794316 579.623849777123 580.527103190786 583.341537728344 600.361818633816 620.884771893014 635.395049866579 640.606676962601 636.795852029004 628.545009260103 622.231593882144 611.412402924351 609.611111106714 612.062994637049 613.577483251931 614.989960823724 616.892246174762 618.925024052298 620.954642578997 641.038085431989 672.656689704399 681.158050188484 678.385019244492 681.436915043048 689.077370055672 690.366284334458 683.482319876863 681.3819874201 688.233421279791 701.183463032392 709.394194169846 717.466214575446 732.362472054828 761.523903816441 792.993068898865 831.561237430101 859.439130761595 884.814535472273 914.768963854298 948.526856834466 966.759620766205 1003.43326930112 1054.17251047613 1102.47562490589 1140.65106292932 1138.55421137138 1130.43153056343 1136.76356115939 1140.02360007941 1147.50586510126 1146.17840971706 1112.11932544022 1068.42776274707 1054.50295755097 1079.90251802164 1092.13646096217 1084.21235743108 1047.3767447417 1034.67261360543 1055.63453771634 1065.47012391029 1084.68060163892 1109.35852305443 1135.2141401939 1160.6221788615 1177.58468145093 1181.85832709588 1186.59246416826 1200.60693283693 1226.41256282563 1259.36476618117 1284.84723910917 1273.90555762808 1248.05787389212 1230.70093602832 1224.45444859291 1223.0168622404 1215.55965278468 1216.34768099462 1213.82353262668 1206.12001604313 1199.19487394415 1193.93074912576 1182.38469296743 1170.80135446977 1164.08971355122 1158.49417330353 1141.01797087302 1131.37321250429 1127.31782101991 1110.16066332827 1084.82508688173 1071.02956978853 1058.78983253837 1054.82748315487 1055.39254550728 1061.41849806689 1066.07639147891 1065.08149641391 1067.1388848656 1079.00309104078 1091.3179964585 1104.72087467987 1114.66103861045 1125.82126254222 1144.70572937183 1166.88241572343 1194.26775564913 1228.80655168485 1267.28690278124 1275.21367858692 1210.52811378906 1163.80222913313 1157.73939109971 1181.19566050681 1217.23159672598 1221.50920177664 1266.63402792274 1319.27185227393 1314.82672685227 1277.44259410423 1218.85071792543 1183.60979151874 1195.09130146428 1211.20567124257 1229.78905622367 1239.14887177494 1250.71735840608 1266.65342054368
1187.22263127509 1221.0802395664 1185.06802400361 1119.68608238387 1073.92701505325 1033.7839379634 998.446834752643 966.792427432377 947.481705517375 903.651726183232 858.044015565724 849.727484014095 839.816079526613 807.873257668705 798.615307975648 808.394131869175 827.42632472073 834.874660384122 814.315556131723 784.112947643806 741.359153449411 695.391209067074 656.507407833352 634.946710233295 605.894802179492 575.274533281489 594.575846088555 624.465475205573 644.63878015564 681.477814307546 703.551320486954 696.38969052646 677.568077218939 654.764025484519 632.335334199061 614.868032847732 608.298465424575 594.996920963822 584.369052541797 576.987447215289 572.466687903033 570.965956042131 573.597259573764 575.002490945042 577.493047217779 578.811629376854 579.657288629246 579.893242372633 579.727089109357 580.164388115924 588.177258121898 623.132496476901 646.933495261664 656.62340197805 662.032091611286 653.560410086246 642.895176451485 628.615089905361 608.7577958277 609.57268925272 612.760560407544 613.443065066625 613.981999375239 615.365939723255 617.068879882284 622.48100495657 657.211752828026 700.621131641927 718.960203255646 704.758218292933 699.028014082714 707.661180631461 716.292820974615 708.536024160072 707.004376905792 713.723232515446 732.048170388426 747.283313427333 755.046950086541 752.401261494021 765.850065920046 798.71730834508 835.822729210404 875.183431487798 912.758898462791 952.613160991368 988.496093944216 1007.35386231034 1030.13310032437 1061.60120001188 1091.26280123648 1107.00990908018 1082.29873641232 1067.01919333568 1071.63149704469 1067.50268619173 1080.09822724823 1091.69487808714 1067.20470606757 1037.83083147334 1015.18313203614 1030.64644649249 1039.32593250996 1039.6812072774 1021.32938785032 992.175486619535 1010.78071435035 1027.88999504902 1048.38883842045 1073.08297306011 1100.66757136116 1123.16868781482 1137.83759195359 1144.46303843063 1142.25750031732 1162.51126090564 1192.40837945381 1219.68915160536 1229.06408788654 1206.98949386354 1181.85386349365 1164.43590019483 1160.30080883985 1155.89125575997 1149.41714309325 1158.45607146918 1176.89123179061 1185.84178660142 1191.87005144054 1197.89972825901 1193.40580594111 1186.90996462469 1185.98547176126 1181.32960768473 1168.15880934954 1164.22294618586 1166.88325947163 1155.09826165285 1134.77922617145 1111.0761952531 1101.35725539504 1111.90010026665 1113.59974620485 1113.61650794236 1114.54171629594 1117.06140979566 1116.9969393602 1127.60305901615 1143.51990549804 1156.95748475366 1163.81880518911 1168.48136980022 1174.09691238548 1185.20911636698 1204.64036170751 1238.21588735439 1275.42387692256 1263.63204055513 1217.66741572561 1193.66838333283 1187.92596442961 1201.41324099356 1231.47693330306 1266.02413780908 1313.17922328408 1338.55282247435 1305.66910882519 1269.54293999069 1241.49624390653 1232.76772882004 1248.47046433696 1275.27132393212 1293.50644858426 1283.57537760561 1305.21454117048 1317.09509252365
1239.08828301502 1254.76533313267 1200.13148962314 1155.72784366002 1117.93205366236 1077.34645414007 1028.34475466128 992.57389711872 952.006496393647 896.418601526896 862.311683428149 854.584700379796 849.983405168491 836.610107124983 832.625709280643 835.60171728783 849.516462993627 854.554883146273 828.71878336895 787.791050501913 740.271264194925 706.313679168883 679.977669763697 649.963670051225 606.796914387599 577.870314839573 591.333988158036 619.403706281263 636.964191448492 663.781080634687 695.057015445812 718.819080228267 712.804803854165 692.130210938847 668.260089445658 637.643889345373 616.996806553914 604.69564292794 591.321701461952 581.958154442342 574.366320086748 572.285520279231 575.456407811293 576.909416519902 578.415628364277 579.515460690179 580.145450920313 580.53198108721 580.636696089599 581.960825645097 597.798233206814 651.310176463065 702.565214887421 710.357065922953 697.153933654851 678.235632325157 664.712821468996 643.121944504231 609.356947225003 608.665499145762 613.684064117196 614.810306644104 613.594276535462 613.892581742369 615.906243282833 630.471449424152 657.787453452659 696.085624062665 732.184361085978 732.831296011047 727.686774005593 734.539934601319 736.049175425546 735.583790327117 736.334369124132 741.374143909981 749.220967200113 761.491987227109 769.695613852319 773.834731772105 769.969115569727 780.207757662514 821.935465366973 863.156699431718 911.70653199791 946.120321045875 968.416698645871 989.802045082187 1006.88308266196 1029.60932503612 1051.47678922224 1057.11129156025 1025.38926333236 995.483056439381 999.334373794236 998.538420726898 1017.29940788708 1028.98124305643 1027.33962894768 1018.82908322632 990.873024682 984.769934687163 997.212330175071 998.93409467792 989.848756554384 966.70279931048 980.614158563254 1000.37124005433 1020.45100577827 1041.55888435053 1063.34257203869 1078.56383264586 1098.2313470233 1107.12188010612 1110.443748428 1144.78070526746 1179.13876107406 1194.30072826272 1175.10372717544 1148.80569667932 1126.57838811099 1107.06702600343 1100.11007064604 1093.66604239557 1087.71716538217 1096.65331960593 1110.77149077732 1121.25616334471 1132.47628659562 1153.05824760457 1178.22378979047 1187.91120880109 1191.32875971823 1191.78151122038 1185.72032573029 1178.85242895817 1171.29254049571 1166.14871739894 1156.76941310995 1134.06681958734 1133.91068323044 1158.34263749236 1179.37099636109 1180.34695158036 1175.2480753392 1174.32666410675 1178.31397557291 1187.59018352169 1204.86702544436 1220.10535713024 1227.56701561979 1230.96550912662 1234.75104289763 1241.59027061508 1254.57243905752 1272.11023665906 1294.07312785446 1301.82231309151 1285.94454056412 1268.51594157835 1252.10845258581 1254.94813893217 1271.82478808799 1296.64369373849 1332.11085955717 1347.51079624281 1321.95953648784 1304.8661603964 1290.05798419492 1287.02658844264 1304.16664952351 1332.75536299162 1344.33436686164 1327.51896474514 1344.52490278915 1343.19796840986
1295.90171447848 1291.71300626186 1243.23051420917 1189.13124974195 1133.53208496457 1087.25258475453 1043.34426738993 992.546360139213 933.960853917594 890.087208772151 866.979509718888 864.018529402167 865.470229441797 858.148722250556 853.418396334841 849.536143463159 853.043244873016 841.208055026643 821.654593467434 783.121371443855 755.928452991055 729.501612574628 698.652801071079 662.318392593468 613.434721542649 580.729196439455 595.138844661781 620.476628188777 631.491460465521 646.521089593316 672.251866782406 706.27837150059 731.666484775403 722.549527231378 697.365138686708 664.081616398256 634.744853807648 617.764989012024 606.974353902604 594.205927374066 578.174621732256 572.50513005845 573.996867041178 576.659619571629 578.526151094936 579.56873467929 580.329146047449 580.808121994891 582.072141769159 586.409478340454 606.563138687729 653.850758802083 713.543345120314 759.643367811273 742.934877875335 714.031940961094 684.063753709466 642.493238241432 609.957307889424 607.252363090893 611.667038857096 614.071430891745 613.430079846496 612.94288154963 617.758525472337 633.782186857574 659.38146184027 685.503008603994 713.869283346305 738.722975578171 745.581997471341 761.395697867089 765.965499035735 762.341461045126 762.388938391351 763.623797845678 768.091202525861 778.500624360902 790.436967861576 795.945679643579 793.667831789423 784.996174207634 811.087166935392 844.518951125861 876.927324167217 903.094596019381 923.148241370627 939.622040177269 955.527262012511 973.902851613528 992.422173798369 995.147107728681 976.846700575067 939.63182714119 929.078394924849 938.831102134862 955.769496384044 969.591368081067 980.177651592228 985.944632243589 976.724494871085 963.760868478334 969.417589761551 972.00565501713 967.681392393195 943.710048439981 951.948990097405 974.733013765389 992.416291591939 1011.65043502579 1023.77793732105 1040.75557510667 1065.50871759959 1074.90038688578 1085.65888239727 1117.49130227626 1157.49889380345 1172.61629158758 1146.51050759905 1111.24544971891 1087.86744630185 1066.35586086746 1056.40585028319 1049.57009448287 1044.43243144586 1048.83004173044 1058.08485535523 1060.95649935917 1075.11508500708 1097.61039314603 1122.97020965321 1139.18834302506 1149.60826283035 1154.87050369614 1153.91208537976 1147.8121809713 1148.16017613449 1157.95549071217 1158.47090918694 1154.94406004343 1161.49521200792 1174.91217297782 1192.44904766705 1199.87777463574 1192.62972679357 1197.54614064165 1212.36517300667 1223.38398322697 1239.64231867156 1256.93497620167 1268.35356132943 1271.13046205331 1271.40647939365 1275.54463888294 1286.45971427921 1301.25811568819 1317.79853394225 1334.10272776607 1342.60168104078 1338.64591078463 1334.70535346443 1337.66722422134 1338.10847753377 1353.26352277611 1374.22753495243 1391.01118712713 1380.5607242915 1375.69615188648 1370.46602626425 1373.16842723214 1380.36272533803 1399.14339795987 1401.37515990467 1389.94606764244 1394.84960796205 1374.38132606682
1298.33937816975 1294.88195492382 1248.39390794124 1190.42162314781 1135.3518386384 1088.69134570034 1040.8669104579 985.178981628423 928.864914571606 891.030618724407 874.247327612674 879.875279218629 886.23891365966 879.478865850087 868.004977315951 855.416438891206 837.876968268902 808.614700735232 789.233552683876 763.739842556443 737.802788941044 726.475501760205 694.118957400897 648.354544434009 605.925392363757 588.426333517333 608.267660570396 626.47026827426 639.996709664984 662.678912994116 685.749223907174 711.317038874532 738.799750040809 746.578697446516 717.726355145072 687.516954104944 664.158451949194 649.033928292558 635.319213454256 616.558228670962 587.362541394413 572.104000970471 572.551255987308 575.141181218923 578.327894376105 579.348862569258 580.184343988179 580.89528958983 587.263003050261 596.456364582416 614.242837314959 651.320327536168 696.540512951452 737.533763639577 759.331772922164 735.10560540766 681.255787092814 634.534285589327 606.563130644642 607.142406793842 607.982356216425 609.999434123321 613.464154574331 612.401730502847 617.285286057476 632.695621010855 651.743038878302 676.752610152108 704.869894191439 712.361191033598 733.622011371792 763.064720360868 780.477792275234 786.289251282996 788.367728713239 789.547620652626 790.563135327122 796.234149773685 805.273971166414 815.529717388603 812.898774743517 806.995768143031 810.180071913026 831.994960630258 856.287597263161 879.376771996768 897.770740056097 911.934162009636 923.943812962524 938.702389238603 945.19035747018 944.832509538782 934.380386937485 910.666206118131 893.976327099098 905.408158676783 922.489616455758 936.713760129003 945.940406569793 948.549548842568 949.065917270728 945.92450862102 947.895045672886 955.77215302334 956.623849738018 938.393295854689 928.220175408897 950.290942487684 965.393061312346 979.650197476156 995.338547867424 1015.69880180876 1036.50784415558 1049.39853418014 1061.58467836618 1098.80136710601 1140.12671742373 1155.95028137852 1138.94627932555 1096.80687193956 1062.1350151824 1037.68369982868 1026.95497805788 1016.51774515707 1012.19384761649 1010.56002233864 1013.97670270102 1017.98168539977 1035.84280154345 1053.78740715634 1067.20394030592 1078.123409789 1086.21877243215 1089.25985615071 1084.65975006339 1078.40417428955 1086.53906909301 1103.90216834649 1117.83039582362 1126.35935915159 1128.03851581113 1131.86380307733 1142.0713301388 1143.8243815091 1136.35660279794 1141.86771306797 1156.04454603105 1172.55703362542 1189.63060853206 1203.83285605658 1212.08788482008 1213.95969538634 1216.168082353 1222.50260558128 1230.2315181405 1247.52841964811 1265.01597607712 1282.81359142024 1299.40251863721 1309.92066170397 1319.14976092393 1332.62061597335 1351.07514292908 1372.26191163014 1387.53514740551 1406.2564400664 1408.86025865575 1414.35060075243 1416.85215225374 1425.33360427123 1423.26634447961 1430.74003765596 1432.78455100895 1430.4695200705 1427.34935705563 1409.39073472445
1244.06383221632 1249.97014342137 1231.9713621001 1192.90144480801 1141.84401264495 1088.7633724366 1037.19126049257 983.624342339941 929.961364176229 895.595022985241 894.099409909313 907.960496578318 909.161824599923 897.059399745301 874.993275243662 852.655624215522 821.251062794483 781.703304787194 751.301032730496 733.519272343958 715.720469079096 695.280739345055 671.014762820028 630.337705558744 594.334483075583 607.428954651334 628.832955031876 634.10845038873 643.79596430472 670.299357210834 698.071122399378 724.834139229146 748.104675977524 761.65720288767 737.700319568641 716.901959738408 699.493321150885 685.943150314264 670.908605152872 641.54595584262 600.6108271017 574.437876662769 573.622111526297 575.798283024889 579.607094936984 580.670851017162 580.366823268918 580.919414329669 585.679369545092 594.921085148339 617.583513177225 642.652270486063 674.241225661519 710.014776698797 736.404775263444 719.548378103385 669.580751900206 627.307929279696 602.020113987031 603.700531923701 602.427559968517 607.106033463308 627.415379122706 621.107695348606 613.21751955835 623.773618973987 638.420737598818 660.093353467362 682.612934344298 695.55742115995 722.236982993549 743.922980424292 764.167247054697 781.936222746081 799.414282416716 814.582359602347 817.762350964115 823.965548438072 828.22639427816 834.143062576096 831.872155495689 827.046333255563 822.636393766793 827.46485814774 843.653273608366 861.912486906141 875.939306706519 883.766122660018 892.436604220895 908.70189860393 907.258447353604 902.899721142801 901.234188540645 877.868416950564 860.30765389582 872.855216014876 893.668190114197 909.389561606619 913.962968765239 920.572759308474 932.479927798263 939.557039867562 942.138216845002 949.907648830364 943.62395520592 918.427660724086 933.080901914192 963.825430295324 978.026572227996 985.704643477927 995.283845497803 1003.51845020094 1010.20258732149 1019.87555958248 1043.12969302619 1074.43974353336 1116.36379195412 1140.28831764632 1126.01674696909 1089.23248167442 1062.50544063332 1029.73926116513 1005.05065289279 990.002604613895 985.037659605728 982.7440149003 982.137520293538 988.924653597369 1005.74787541496 1019.51951712753 1026.01322834629 1034.66332981693 1038.85874926181 1038.77136657453 1028.24878773947 1023.8383896324 1033.67804987774 1047.85793504242 1056.23291737262 1062.92354622968 1065.62986426537 1069.82011349539 1077.21486679153 1077.89914795511 1071.94004835549 1071.52056525811 1083.97396618561 1105.33583398859 1124.3964757791 1134.57402979071 1140.46285466766 1140.68482168873 1140.62732463026 1144.25527465662 1149.34624183423 1170.61050635625 1195.95562283209 1216.68662097923 1229.39093448059 1245.00828369226 1256.32140032444 1270.48715669017 1291.85022370501 1313.00116427895 1328.78519830827 1342.55279711544 1352.79686691359 1357.93117762054 1365.46153748232 1372.32242325149 1375.41373464177 1377.3299849535 1385.49138316902 1386.70481572533 1375.76003976128 1357.79225630623
1185.5826575883 1186.22871812072 1170.04412849003 1164.10450315999 1146.70030544684 1103.62399461651 1045.00398571282 983.974838092722 935.622853599765 918.987824442877 927.678644194015 932.941639414302 925.132009350495 907.505908039521 881.293036387342 851.33763078016 816.63365492142 777.893153907272 735.300295995047 697.458731121742 680.153510646373 669.144560644786 648.657276015266 621.331784085689 598.149865486331 608.568723201329 633.291627757386 634.183071827646 636.609307038543 646.777493246675 668.603812053552 695.559301951345 722.788749130606 749.091864104561 754.900129528073 743.380545261795 729.561383841023 713.486696283463 690.68932717471 646.75886561943 607.555619733029 577.990765618104 573.624904444342 576.986196552441 581.427487206424 584.338716555332 581.117118402193 582.015366239372 582.539789711323 590.38643553632 608.861364044991 627.076891995191 659.647445885814 697.821314636992 716.63253343507 699.270776782225 655.735391512395 617.843602361758 599.003642098954 598.209168127915 597.061528049702 601.342092058156 636.598686997229 640.341642462908 614.303279072512 618.093288210297 631.341874520772 650.762953527277 666.130822968359 684.82079663713 703.523619485563 721.242577520938 744.821830587142 766.889682792239 796.769399487188 826.78900600449 844.284965666785 849.298264341155 844.026759340919 836.622035452669 843.763414326896 845.951861879929 839.226892826351 835.740371911436 840.709488862091 850.896830874181 857.361524130625 853.913471227281 863.018861368722 869.530279707961 863.597285218159 869.119482187527 878.947034572919 854.647876157298 831.97179026192 850.908241430701 869.762353342558 870.359157146651 879.425302580487 891.38116562841 906.801353925269 902.767831098493 913.612593233698 922.261897720205 913.358559047683 915.566191705493 955.298449653082 974.422309232305 989.461168013278 1001.39625249842 1007.71933116138 998.265466845164 998.313748378574 1009.40652309387 1024.98398348927 1048.12350273249 1081.82519934493 1110.91473655965 1099.23867244957 1068.20854506192 1049.31279751669 1023.70081890271 1004.69461954345 980.937921566188 961.839889576129 955.50323971915 958.648530955432 965.027531268345 980.676861704854 988.908459167566 998.706859074207 1003.81722145291 999.907311404749 998.147042669105 984.44352823347 983.142113600607 993.710987724996 1004.24939080911 1009.5627205322 1014.59728396418 1015.59512273676 1022.3044611505 1026.10812281965 1023.70480951457 1025.20736247716 1031.26783443222 1037.23274511284 1054.1679716242 1068.50362163898 1065.60747198685 1071.91804366156 1079.83172478138 1080.42387682622 1081.71977088217 1092.95289125497 1113.48409510531 1138.85778278532 1159.63841688172 1172.34243076291 1187.15464269637 1202.96278743319 1222.43151524657 1238.13191941553 1255.25773783967 1271.87353331194 1288.01473003671 1295.7048466094 1295.89403456121 1301.275059449 1308.05298678784 1312.9763022806 1321.60125393694 1323.4978217838 1321.16424139127 1310.34467033422 1296.22749513888
1118.8660830284 1119.29158376687 1094.64506137221 1086.47703118641 1085.76562936611 1075.94084095449 1023.05974581659 980.563225307003 952.827532271499 949.547080770325 943.686684071399 925.804773493274 917.854793149008 902.577623044973 879.896299639483 856.391184187467 827.946562103538 798.542709746133 748.449900755821 695.269541683971 655.594186510715 637.703360623803 625.171510213388 609.258043948601 599.107644770962 607.109588733197 631.237532924522 633.632494269369 636.481676554937 640.320167225884 649.037211831163 665.909605907548 689.296959357569 719.59786606339 748.734096174029 758.863926706037 748.271929496447 731.049301638202 702.250309060462 655.643467893185 616.558797337902 582.571625666675 573.987037333897 575.391531364859 578.016715098548 582.727614837872 582.847262426068 583.255220372911 582.802826339988 585.000983714225 591.927186033835 604.890598848551 634.51138060587 672.140994586891 691.402164112331 676.327800099036 643.278767323182 606.324164135845 596.846133426081 596.585123439681 595.743618382267 598.894544013935 619.716627449633 628.409176108681 612.574246015523 613.553680068645 626.57907063238 641.965808703622 654.015953065822 670.181414419679 686.67493650587 705.883218129094 725.756814055346 753.136280590506 799.571716674116 838.925947130749 851.87528613781 847.292938746143 827.439660673598 807.929818525315 820.912132988768 838.824262593832 850.450490276746 843.642702028323 837.840274891826 840.431461070147 844.253531734451 836.321817958861 824.899946836383 819.113230841667 814.332116513862 830.954643004298 828.957508765843 812.288591619707 804.531694187289 819.565630707427 817.136174949151 813.173829231243 811.779187247111 825.28724727139 847.826588203255 840.840192900197 853.258416293163 871.57708447596 880.101471493262 912.210291878156 947.769959309267 961.445557050016 969.131644378287 976.972241140677 982.192204880531 994.933748408152 1015.13632379849 1023.11968903074 1022.06403714194 1027.46002745973 1035.65958650427 1053.62195581962 1067.79512480554 1056.9776741526 1035.96704368739 1008.84767775484 987.227239264414 972.874632517035 961.643594178795 944.135507922545 939.172397637505 945.500294005733 958.162924805453 960.135141496107 972.122762206505 971.563438854518 962.275696136229 967.732422426672 953.622140774647 949.139292212394 962.704267736399 972.498768737801 975.962943445482 981.668148721789 982.430845476086 986.828419392018 988.553486250037 987.315010072482 991.961389690321 991.112373804853 1003.24959278588 1019.44440476849 1029.94347632941 1021.5558381784 1032.20594335176 1041.07879147612 1040.31295669378 1047.54275886128 1061.03434488871 1077.65100547685 1101.3869720664 1127.36514970328 1138.72026360932 1152.57260061627 1169.08153011042 1184.20292258019 1197.54136339081 1212.79086701363 1226.85706195065 1244.27218771861 1252.48721303491 1252.67161257483 1254.81995461931 1256.80703711718 1265.31985488379 1270.96663446557 1269.81087506553 1267.01088803001 1259.24479632513 1248.77971509453
1042.12775488951 1036.74677713204 1023.85166536514 1018.59199423698 1006.04132704179 990.451102164932 953.623644167778 946.209907048124 934.662267493973 926.628043422788 921.916098858309 904.940249187123 891.153967737605 877.584522862776 849.808205682944 830.424588805304 801.784415586229 786.121197596322 761.065286208458 708.086803374857 653.233833267715 620.079748118518 605.810059388501 600.140982158591 602.669102882112 619.429047450734 643.613494411022 643.745884099141 641.830682707852 645.259401717641 655.408237292854 672.176841845612 692.364167465623 721.714317334425 751.808764469547 756.922758500534 741.436486363513 725.165383234524 702.437639115509 663.506001444308 624.758354353305 584.615635538583 574.503143938847 575.14694025115 575.98490963636 577.799699659992 581.04132603441 582.407700924222 583.011822264308 583.837667698735 585.667130470553 593.729586318927 613.343258138225 635.546077659384 645.472179765472 639.768129484752 628.394884746003 603.548859338435 595.161969500972 595.055839219405 594.934507012624 596.233000137979 605.706653722556 612.64395962998 609.633299566921 606.631709577184 617.434800106499 630.999879217953 647.374220888237 663.04124654448 676.436579445455 689.122736997655 708.245273814645 749.124360528364 796.243272988583 811.756852399079 808.095850014141 797.655777266817 788.734495526449 784.588855092647 800.493090432603 818.853456694593 845.611194671921 850.166701865441 837.071427509875 827.594302899185 827.911695700373 822.924359389451 806.693531256435 784.928934622818 775.944290548507 781.776144653123 780.879665380998 774.279492728355 784.810239783655 805.060661692244 797.881889197779 784.408115814612 779.202628052407 800.68878743054 818.835524368401 803.817088110607 806.756524580623 823.089124328686 842.539600530487 889.524101123163 925.368124951594 934.936533383722 942.617865089306 949.637930514693 974.814796996571 1012.3400484151 1043.93283640919 1052.30911690915 1033.91893121649 1011.91501320343 1002.74145810462 1015.00135986715 1034.55254327723 1028.12011815297 1010.83440736767 993.477272527327 981.262172491481 967.963558710607 953.940660877914 939.82617580934 931.072394766377 930.326944763729 939.046852042356 937.618221189084 943.678670913984 944.222770504914 938.553328844377 948.289509449722 935.142123489158 926.055550286168 933.842280039852 938.428020231742 952.326144592716 961.663078980041 959.36299589884 964.863628449201 970.537953965835 966.836211633523 962.885425270756 961.20511953147 974.427469808022 983.880240853717 987.996791776256 984.070177746957 999.053003905585 1014.33626530532 1029.75354883101 1056.19591089762 1075.01586025324 1084.71307240147 1098.33767726146 1114.4900557062 1131.23926339054 1144.25944622314 1152.23257355606 1162.19477209792 1175.7072142662 1188.88200357147 1202.99988208681 1218.68849094327 1223.69984324485 1217.98523999018 1219.96045298295 1217.86644577227 1224.01902886245 1230.47804435771 1232.6451125313 1232.94772143449 1231.39476839479 1230.84504094468
959.789857856794 942.202443143268 946.792130527683 941.582263125244 935.215448812139 930.358599959751 906.966892944771 901.771612244287 893.552451657728 885.18297417414 884.703870125154 879.144033845263 861.42276209488 843.082682406188 814.66394915616 793.131945163192 765.50020197852 751.824364913102 744.675919772523 708.977193100477 645.339531881574 608.080262753551 603.39378909341 620.155516276972 627.453857747073 627.834380412511 648.16725196382 659.957474471634 659.421343623128 658.141134657947 665.047489716118 688.425875541185 718.9186433769 751.42639596747 773.084464023964 756.015235140368 731.8476071593 710.158922129842 688.742142964337 660.174625386087 625.986879629633 588.80791043831 574.88286807917 575.234455561165 575.680685227034 577.20401170642 578.765889266022 580.807816867091 582.301740743991 583.822229809145 585.014989803249 587.164142217905 594.189595194059 605.837489627016 609.442386520327 608.474607864002 605.249294144751 598.264796096832 593.771209056845 593.940062571636 594.599508678181 595.863987839879 599.005441226079 605.311235782748 606.37596566646 603.488103910698 609.157501551828 622.45786970832 639.619027399838 653.823710513203 665.574050182834 672.606531431644 679.927146072806 715.505644081658 744.421587311021 751.862722544362 758.327331042298 755.416407217042 758.267475958313 767.362070306386 781.150296161199 799.834982321275 830.27367466207 850.291787282213 843.430677585679 829.475367761483 814.354119936727 800.943133715874 788.676183994756 770.183175549508 753.606868400239 747.451206181939 747.51228909999 741.285695517858 752.523662222678 765.92078539733 768.792946591649 762.367530518474 753.965019783843 779.630608342622 793.138610820486 775.27141181267 777.767320914161 784.538263361706 803.454235263886 843.99639698248 874.977015459158 893.408228497423 922.339236869232 947.078221011521 978.206854898949 996.557205682856 1019.96087840718 1036.65703092934 1026.70788289749 1001.62242906818 974.026078724082 988.188900344884 1012.92475062928 1014.33117948839 1002.85804221952 989.080943956581 978.292726134329 969.341881621331 956.899548731015 944.181668114083 933.328736768973 924.115713457951 919.637071248165 917.622906629103 928.721826562836 932.528372372345 923.58613279611 930.624522933297 921.954634905539 915.325369762567 918.251740083042 920.549633023102 929.661650997029 938.652688311734 943.728964974436 953.679594880623 960.117001857153 949.734908589163 936.791316205504 935.888372127406 944.170754635536 954.415389116976 966.498952472276 986.83435690384 1015.27519251266 1039.63897752895 1053.11351752707 1075.7939317191 1096.05147414594 1105.98134172986 1116.97386212615 1130.92897999193 1154.03840590793 1167.80518620864 1173.92028018929 1169.8286196787 1175.02358025671 1192.44839299855 1201.1195531411 1203.95450351117 1202.45593844936 1186.44323456918 1183.08847463516 1180.18246756791 1192.50426584211 1205.72056542975 1216.95986431299 1225.06873433863 1237.48243949503 1250.51082103883
922.279796360422 885.206429991991 889.632750340848 886.452330796756 882.908667200188 882.987204743061 875.607009566016 864.600378882178 857.081860451939 845.146600016642 836.695301003676 835.691008834096 828.103728171908 814.807183635719 781.296582644246 758.229890377311 731.808390760355 714.050221136592 699.215748618489 691.934013171526 637.301046786763 603.60199341534 610.852016617661 647.481216731919 657.66381948248 641.77038668774 652.188866676221 675.748551779075 684.199210030267 691.155716928515 680.884976874398 699.536541639381 732.507956544342 766.776253483756 783.539496267807 757.675848085259 727.565847525306 707.301495633017 683.569952344285 654.007836009878 623.765215028087 591.813410770554 577.341127675395 575.529589345589 576.219103644538 576.861803433298 577.828835815583 580.101782058287 580.881871150968 581.669188354051 583.998332606626 584.80599827662 585.897441735682 588.907538560488 589.798143001466 590.933762655011 591.506395771243 592.209222532376 592.818308010646 593.349585028063 594.673793561955 596.121817022144 597.305194722241 601.028048392438 601.476666718571 600.440712621389 602.637798692655 614.696702650737 630.626665956922 638.001157297223 646.833226062418 651.457456939701 645.911529646211 660.761603719636 685.921440875146 706.26473838588 721.430082028215 724.566528684352 733.602906300718 745.524557059772 752.847815440855 772.482740943701 812.669514408567 843.307541741784 843.02887288191 834.425260181486 814.705986977035 785.275010309984 761.826041270707 747.73170479591 731.859852945109 724.272583915353 728.023744072927 718.424918012787 719.694372298405 718.135453598811 714.260668245617 715.587075717366 723.544541192179 748.35108560646 761.083178764619 747.72328038625 756.492056414295 763.737307593682 754.102190787037 772.128889945239 802.236738270815 867.923224139073 922.232982888703 941.927553597183 947.055034574312 952.979505383506 970.666938593559 991.748361063565 964.211173647284 949.171094449714 933.382243395916 951.182428707938 974.116947215666 983.555219470246 993.167276788942 990.585231882991 970.263982136738 957.209194351955 947.073821298495 935.507605531007 925.825421048299 921.067254695977 916.919796658636 908.007020148687 914.210184446197 925.673491792647 916.756983296812 914.816309872223 912.534606005501 910.169593041104 913.715489248081 920.941487046464 930.830069143287 944.490314906266 955.355276317849 958.120227585005 950.980368652205 927.876707850423 925.47796116053 940.289035844527 957.470288433044 978.4736100945 998.395594415933 1020.06746856106 1042.15277967016 1061.03090152527 1078.41517136057 1096.50489264635 1109.92745406596 1122.47806887075 1139.63664827242 1160.78467740675 1176.345923039 1184.97317998875 1194.32409047857 1191.84038404348 1182.38876748424 1185.6665064503 1186.11065316431 1180.36804542788 1174.07597365919 1167.93440869314 1160.30015101589 1175.12480381468 1196.10525707977 1217.4510111636 1236.74690271812 1255.14006350839 1271.78537159892 1289.09401163926
909.801012600565 873.093720507818 849.540581382103 844.746168051407 841.099501749275 841.149706112288 841.510186055002 837.029774595216 832.139699789356 815.062828123317 801.840449759213 798.125376118512 796.545734686028 797.392633027683 758.862915607907 726.939801889871 699.77285746309 677.695283756996 659.914600261744 648.138483155801 621.751953673473 605.321906519799 624.362563028747 664.003393828817 692.367284238912 671.390083096048 662.914807952551 691.377755667652 710.0421049625 732.701468888862 717.647191609051 722.281690916691 757.390391900827 768.214694326223 764.502814119056 752.358974041498 733.391419890043 713.574347778223 688.167492993075 659.260034603508 628.393284360095 595.571339217338 578.682551011235 575.982526548866 576.671545126984 577.360766720784 578.358050061981 580.409117349235 580.533286597168 580.461775631787 581.791793103792 583.113280696565 583.867883502831 584.938765011508 587.109404700086 588.602361796134 590.405732541162 591.97978195953 592.772771260418 593.187530117623 594.048624130185 595.245272539848 596.667441650724 597.995633692589 597.71693370301 598.271137782856 600.158666933595 605.236397817387 615.11612687297 619.839536780196 628.244951408693 632.628704775783 631.99459790498 635.701082590732 656.593905885921 674.517462984114 689.280615070772 698.16388212166 705.775931374878 717.13480179678 727.3439518986 745.147231098668 778.496924756321 810.689753076678 813.795177865175 808.885671684755 788.33320782966 761.808454714205 738.576539600054 719.82271311485 708.591612141801 703.297478546445 706.830387993559 695.611533340641 691.821775930143 691.642827934448 682.160261934565 684.418445522712 701.774474595057 721.383471982441 737.139491421342 726.678628880921 719.680492832946 723.121546754994 718.437439681074 730.585465716196 740.379440289203 805.391149991359 851.138669627732 857.954146036152 869.791624610326 882.780696871902 896.410230278882 903.017223449164 899.997915475644 900.898553610144 905.463671607759 920.36025869838 932.465320507481 945.921014006018 959.273286382046 966.334813824518 971.32877569907 964.832963913047 950.541206101129 934.442944808932 911.337445455096 902.71927949065 902.490363950411 900.765568787993 905.65635001385 912.935606607598 911.140322594058 906.06440648321 907.463558330633 913.616492752304 924.958631595098 943.531486488986 966.026309903291 985.468030644214 994.13363730659 972.884716381247 937.66511843745 923.031155782058 944.594513207023 971.251509369493 999.926082175444 1027.83159641541 1052.11980317944 1075.63472402619 1098.77755949541 1112.15287221139 1127.81634878224 1148.36722740219 1157.69634578555 1159.29672719928 1171.9381333992 1190.16023696111 1208.95910976876 1217.23581235052 1220.87855889508 1220.45779233279 1203.01624210574 1181.18292667547 1163.5843715596 1156.63906585921 1144.08644756135 1142.74821646974 1157.15780933431 1184.79630037745 1214.87949090749 1246.77630559261 1278.08796950114 1306.86968759661 1327.99713091679 1344.14581340939
904.448206694961 884.008270700667 849.338346937315 825.707165323873 810.307619090628 803.554608459399 810.464539245611 809.990958020593 806.351557724086 796.569207268054 785.377055564926 775.25373925104 770.972695556476 768.100192729112 749.799474525171 711.94725214923 684.492881352234 659.283990851258 636.53272059675 623.596580686766 612.670581892689 609.022949829038 635.347279547035 666.954105658806 713.27425453981 718.637815173982 690.86268713876 698.774129076713 733.260543088758 765.828570639287 766.374845420773 750.275901141615 760.138505475237 760.405208447856 749.591325722733 735.631617333516 723.146772880996 708.208188056874 688.870722418335 659.044410046544 624.578586494718 598.170882944117 580.705355890349 576.880218552491 578.178960171624 578.382336169215 579.055442535779 580.655508472741 581.745116318643 580.657014523375 581.537184918733 582.515888720544 583.349260179502 584.700314697553 586.188273230098 587.813539481013 588.780429444892 590.584788259495 591.688221697057 591.935979863465 592.732124691709 594.012473754231 595.165191000138 596.569418274777 597.992165708602 599.759453640323 601.19940332597 603.400340169993 610.469737981882 611.549210891971 611.440948763811 619.731977723287 627.781963842542 633.084065602375 638.39514972007 651.306738008031 667.298607515043 678.982935057791 685.773630345372 694.740015683425 702.622710503802 711.996147637475 733.281842842386 763.48750691625 759.987871619142 763.968712081846 750.75875041235 730.041793936384 717.005335855533 696.908418713689 685.952042946401 681.210861688124 683.442638340045 675.37211019053 666.924137450043 664.66159878901 662.050181149077 667.453039873595 679.575080093467 701.827440553183 721.219026604381 724.994950272264 708.701033895585 695.283569417038 697.806267553483 706.461026964422 716.100165610961 737.015609530712 755.074484847292 774.281866597016 800.199497100975 820.545938134704 842.098071906541 859.139766575657 875.143056258547 883.219999354848 887.65601887052 892.930200323259 899.421911373776 911.98349624078 920.683820361482 938.837294730752 955.79717460585 963.401563117311 957.129206058464 930.397796392127 901.95538125169 896.789906104187 901.093406434097 900.405159922612 902.380153661699 904.541685620243 905.123795422168 908.371627928957 919.861087811835 942.010469271278 966.394659792883 986.463316587236 1003.163394114 1014.0225589132 1006.77303114617 958.227962722009 918.149470794458 950.533507187285 986.448823749862 1017.27800278707 1050.51889906143 1082.43047982567 1109.39943218415 1138.66560852808 1172.59256966171 1190.70067391976 1200.75102203209 1216.96184603664 1233.26676528866 1231.71224505001 1242.71582438219 1260.96849004699 1274.38301106334 1274.16752572301 1265.37694615631 1257.28594476285 1221.41117161481 1186.1658081089 1154.36037162399 1137.62503323706 1131.06167158037 1138.45625344921 1164.54819422358 1193.99228437392 1245.16496153172 1292.72184670559 1329.97550845742 1360.79046555181 1377.97102596757 1394.40387511224
895.020100617699 893.5271436413 878.546443286579 850.497811914378 819.721288174435 792.549352498867 784.271144004017 787.854929009254 783.263570570367 774.671262493102 772.481299451509 759.503138733561 748.232881877293 743.297751628191 734.460028499285 710.874223027728 669.891999145719 648.071012842973 630.570116620821 616.922847653576 612.813398891221 629.175918779613 662.99660886156 681.365132936549 720.492780564773 754.696650241742 733.948153219309 717.504465814307 737.483313634291 780.854449660178 798.490748128313 777.532954885092 761.14571324329 753.677397633049 743.902451397451 729.098362496542 706.100841193193 680.987752867647 663.879253910163 646.723957421147 626.365164392932 605.139283248309 584.143657461532 576.740589130879 578.180490282286 580.185881907446 581.098495238175 582.29723522191 583.712557239391 581.939571011795 583.499900850821 584.33279512337 586.344842136583 591.689470681456 591.510009647921 588.759904275016 588.345747625767 589.00515562503 590.303621878509 591.234666637168 593.226787801113 594.818594830507 596.320685409065 597.549640413138 598.788637498967 599.924476889639 601.101419872925 603.628597389155 612.362446872627 616.447108678107 610.099416412881 609.995399369551 615.80257354776 622.296903892719 626.225123461636 637.064390034703 652.647803275028 663.183591936881 668.497115371563 674.729591329117 675.890669700747 677.90981714428 700.382043697985 724.931680999661 713.230659712572 712.798488298022 701.395536431425 685.631133730177 675.490089776995 661.983458171789 660.180793359649 655.779034174863 653.184652048219 652.268824380095 652.014075431914 653.091729342189 664.033340552028 675.845376360185 669.553782100733 681.562721172432 697.8986917508 705.315016782232 702.841140442436 691.713604897471 683.723565307078 689.598182242841 705.517444015727 724.962334479344 741.099932200279 757.030826829844 777.157297548652 798.574016288908 822.637960509063 846.450196632466 867.115625315046 874.009856674514 869.913928128265 868.807073710803 870.339205781049 871.130398811131 876.553710664451 907.706323243028 928.693106040991 939.182900030038 912.30491190142 901.320343314402 911.413528210725 926.478200530734 932.186172019144 924.528726621693 917.305714091082 915.517338943406 919.217725545186 933.464395423724 955.747939003939 984.59025186426 1002.21235915343 1009.11938124643 1016.51901350865 1018.26601026879 987.179279836807 932.703978251527 919.079158377188 980.576254783779 1030.07888568583 1069.92760321491 1110.00350726427 1144.23536177647 1174.59307542639 1206.89646019127 1247.41448980725 1272.88546395281 1287.96441119252 1295.93338580961 1320.52853205709 1325.26071749659 1326.13819043814 1339.732963181 1353.71457088414 1349.83484514684 1343.49309095462 1315.68796612744 1245.85807504306 1188.72533771489 1145.59511619383 1130.63399214392 1126.62839255269 1137.65071937973 1172.17714066419 1220.55597385187 1284.92069387676 1339.29717923714 1374.91740569818 1386.16251628341 1374.77848528452 1385.86026725256
876.062584825197 878.459830920691 881.653456392167 867.040244563895 830.398303322378 790.225573713789 767.059754867883 766.003534321832 760.682369314207 755.758049722345 760.48263086083 746.114700872142 734.42993414118 716.909950170243 695.323259223985 686.636984609249 668.748094113248 642.494448351854 626.798611336896 617.087401658896 627.676400166446 660.831818619515 694.292622214395 710.412598607096 722.069297481967 746.037258940044 759.339268760817 758.803280460193 759.079512792605 781.88574349851 807.27971571555 791.440391411751 765.055576595464 752.968702697574 745.419616156772 730.455597253102 704.232352832621 672.196869877273 644.802913952386 629.214528792451 619.157821242464 604.056355611517 586.625890466389 576.950475247619 577.300588066389 578.985376324613 581.107179568577 582.585006734069 584.191281530944 583.982091843443 584.937190983647 585.778774438057 588.876259401544 597.347227533783 598.663868579417 594.684107353914 589.564443140113 589.712139828206 590.642501883397 592.082036884321 594.01240082263 595.354696192473 596.202408936788 596.796838380392 598.202739999464 599.47341939275 600.375236948152 602.098230709025 608.237249521034 618.332833362883 622.21870250388 617.734981547889 611.510099770986 612.209234279725 614.279235751235 623.515024654242 638.759311143119 648.338074045505 647.584962207869 651.107493924049 651.901945185439 655.856298548624 673.619197946972 678.998921316639 678.171854513676 676.503954017001 664.9484169907 647.873504882682 637.799506924962 638.021371892426 642.86545445692 649.516120645952 653.619448753739 665.815952724792 675.045120043984 672.931115014767 665.993474143492 694.370122872064 685.179999210334 672.798339399019 672.407075615051 679.148501346763 681.946537540475 676.796670270261 680.072799793967 696.349787431826 709.269938554179 723.166372924991 741.87159546031 761.741952535588 785.66078060837 805.455665283793 826.775212167936 849.408835363671 866.624374658769 865.660589956823 852.126837571254 847.59322782308 842.742176250761 833.944641648815 834.083213150673 855.015079231812 894.712052843896 917.587126307678 886.868627777582 923.989791865484 959.467474498766 981.402827459406 991.140292916924 972.517965416265 952.598935521113 945.04734902357 954.488055007605 972.666953334202 985.779500102167 1004.97749986392 1012.41531977422 1013.70646474453 1024.51404731998 1009.15587594858 951.474654387199 894.005909305464 927.961741762782 993.953174501196 1051.3987342576 1105.26967352214 1160.03521159596 1203.5014433984 1238.04670779169 1267.40941634969 1297.70224635491 1327.53134336129 1351.26809962026 1368.99484570111 1396.50176809635 1401.85306724445 1386.88269107388 1378.09119894779 1377.45196141514 1373.85037061849 1387.05358198501 1373.6108827336 1267.00148837993 1193.56003776092 1143.92162876197 1127.09970346586 1124.29389776941 1146.68317727659 1185.64820134023 1227.6814619145 1268.84411399901 1302.75182354947 1334.30556792406 1362.21761016666 1344.99003459001 1345.00506904174
861.449409552656 859.830452521165 866.454373392716 869.378780532173 851.250659200599 808.054939398932 776.509532217619 756.393553279083 741.482507608096 732.237140210362 723.686009544749 712.823358040731 707.011856327503 692.45794369992 664.171824373458 651.529323496555 643.31468042365 631.691908743869 621.988554902693 623.642485133728 631.991236086487 648.836763169237 676.384639332192 682.489736107263 693.989817676383 715.066810334809 750.17411076134 784.514141939351 795.271586673711 791.26599201503 804.702567336889 794.35316754352 767.767078131525 752.082345361627 740.881110075732 724.716022339295 697.361813490195 670.218665819561 643.681746238475 621.486666497303 605.574450769155 594.12012626879 585.752922014641 578.95539804639 577.227228286378 577.3671039233 579.815483110082 582.058442193259 584.405535484588 583.859083926145 584.477221528289 585.230380633661 588.100417359068 597.743823680515 598.974404381925 595.395724480281 590.652973366145 590.171216351841 591.383140340481 592.87519007335 593.949393262606 594.660101420831 595.517354234313 596.891991954996 597.701040902108 598.485552530245 599.136627932907 600.208624590308 602.879697174887 610.826374282864 617.409372739042 628.209274085389 631.201634672158 624.879991672926 615.548800331325 620.152710906434 627.138679278848 633.603209554959 630.109689001054 629.297206424251 628.974651435823 637.943142258398 646.71434175714 653.340759205556 657.357131921571 656.370561882815 642.236513089177 634.267471398162 639.728304683866 655.578408433218 663.392470639778 675.756857421336 677.93612251971 674.426827385991 686.927600482029 685.001440162441 664.679409305179 682.044019981709 706.401405134466 707.233277817716 683.91464700126 668.404781338553 668.604510584973 671.832705058431 689.453456745581 716.097268917839 728.460349956788 739.052742724336 764.609812222024 796.227141473247 824.034991825868 842.454390326604 854.469131554178 865.56379802644 871.929873919971 863.813888434587 843.322723541692 828.176486815793 818.255863601563 805.873218247252 802.165224080896 815.970901866762 843.333479212352 876.44515089921 862.352417089661 906.74368564151 994.315880466388 1029.17651912333 1057.59307749867 1051.77361144689 1005.77341235585 976.773238790291 963.605071592329 968.427983834456 974.394087869841 988.39465535538 998.206069648183 1005.74571665625 1005.01437037019 986.519568640965 938.376511349779 883.689882763964 913.093369948591 970.973591959125 1035.62541948813 1109.91751352464 1174.20427539026 1230.52952198455 1269.42683761519 1300.97967680557 1334.99817854482 1367.21996444722 1395.16361440304 1407.33866687343 1406.83039587363 1393.65072848969 1350.11715822617 1321.04110596483 1320.55030054268 1326.20237637243 1341.44171801021 1338.62628775638 1290.42580428757 1206.09676410483 1148.82557844172 1122.95246609728 1103.12128198206 1111.18273997826 1137.39571434792 1173.49538849791 1210.51782903165 1242.72504239191 1268.19890201299 1289.13856091465 1280.24989441065 1290.6750487594
849.952348710404 847.027816124029 848.22695658635 851.385161448431 850.284624868263 837.856761609599 818.505769616796 789.797493093734 761.466994839092 747.08300344394 732.115608699383 712.751541746821 697.928765309473 682.917595431043 663.194102412862 647.453886637251 633.888531508303 626.042446199278 622.497906158913 646.746870914211 659.122596614023 645.473075866376 656.967724107011 669.188619053408 687.487694578707 714.27564362169 749.287960184678 790.58680926546 808.68849999029 803.577704617193 798.938842390528 791.153233524817 771.300155440114 745.989050562924 728.139185197283 709.352031178454 690.116303553632 670.760370122915 646.565136684027 621.254605237066 601.245761348986 592.445402416134 586.774267828567 581.707772301274 578.638480996892 577.615120612393 578.157524856325 580.77284089815 583.98037126503 584.15985868015 583.94725971263 584.519435409458 586.46266478243 595.201870734662 597.927435721349 594.374076629393 591.521948805941 590.943527896977 591.98879701836 593.088963982403 593.851142823605 594.860342265132 595.62899768967 596.445905722386 596.70618673416 597.507981869275 598.203092095597 599.9401040867 602.428690460697 603.319967372909 608.407939964344 622.891021230972 632.641082430535 633.457511804881 625.646052576933 631.163446620038 628.598726374947 625.495752769974 622.388409053598 625.025371455779 628.188771047002 625.871756491028 631.940185656516 637.633946531318 638.705839441273 635.455085400456 631.546163276393 638.90235801583 651.540604123089 661.658468469149 668.777927246636 675.360501636997 681.801417172304 678.281463965162 688.752466520821 684.977372054079 663.232145006804 677.230323879033 703.849675183953 722.331965039325 709.671437550046 688.903535801754 685.793063201175 683.07260696186 699.409096093347 729.437642944313 739.006222974745 759.914365118696 794.898461026756 836.23350494919 874.864259505991 894.269633238123 898.532665142021 901.958220560359 892.190652266476 878.574708996344 847.783055703336 815.295823893412 790.456344338302 780.84999929857 774.398362505812 782.915043842325 790.236497120297 806.172602375284 827.165490550369 888.909634664432 956.540175541214 1007.9885662291 1051.23817863426 1080.32950811001 1053.4118458429 1004.37055509606 957.544748269898 934.483329052943 931.53025880901 937.503389369905 950.727672830009 957.774344470449 954.349737555243 943.562663815339 898.150753218455 864.377441270575 923.788514145743 991.089642159729 1050.03901539102 1103.07606880905 1151.00286710207 1198.69196738809 1245.7270543692 1289.91360230695 1328.39874836526 1363.19140873239 1386.03888469755 1378.37264367868 1361.3557483619 1335.94288825053 1293.18433173368 1266.08347246963 1263.57942412595 1277.29765290767 1290.96831666985 1282.26794482507 1259.62135538425 1212.12045733616 1161.80483759273 1118.69953193267 1087.93091011166 1084.30213926142 1098.17876995557 1127.67755731954 1160.23090687375 1187.97902417175 1214.8106645178 1223.71775695228 1205.58205445828 1215.04349862299
839.712692630135 835.731806953135 826.622616601176 829.784986084701 837.92298095889 846.622236893242 849.101381067371 833.579011299498 814.828755557025 801.21409596049 778.854773699323 757.525670386949 738.236629025542 715.82366386488 690.79379442842 657.64492260853 631.169464433262 622.422017446458 637.476627093601 668.685526709486 682.125680694629 662.436463680463 670.925454768409 684.929191227848 696.142313842694 729.54184921968 769.595646499308 799.276935829486 815.869127090201 810.641979597013 799.402838215862 790.141262483883 774.014243364696 747.35295807376 725.477797418803 698.156826744389 676.133941274347 662.885437888436 643.886219795781 621.309461691937 601.53703791674 592.532059800954 587.342887835364 583.950963003488 580.730809588646 578.197325839636 578.428340300905 580.15322669226 582.436384463648 584.566904340053 583.408547677495 583.757878835626 585.023228530417 592.130627058719 595.127996880258 595.310352841443 592.804592844911 591.680871133324 592.374204679464 593.015970159578 593.730470007854 594.532658850319 595.103685434657 595.605766594003 595.999017611718 596.775415029656 599.502116881004 605.989530969659 604.186885387022 601.928472286284 605.006802312926 619.264698888332 632.076320656849 636.230421338043 636.361713653795 637.97398961833 637.562330414992 634.434957282973 634.588834307161 637.844136776297 640.048508419962 636.731968846733 624.76435628443 626.803388522455 628.557636378205 631.842274283703 636.07046029777 642.799271080057 649.466910144575 655.447234101234 665.030316540411 675.150473160001 681.917937483084 682.094405548289 695.311965858103 688.115838159707 666.000974577081 678.555868034876 706.89069654377 728.112764083832 727.572093220937 714.764056079049 696.757159748063 682.924954817526 697.017601685298 724.01643744513 743.820211181113 767.920047977401 805.485134972613 851.485000485787 895.342934653669 906.693560807671 889.301857470612 891.714913492761 883.614831738221 873.064260431591 842.764488988129 804.1643991697 776.226481397416 759.336233741869 749.013819640886 753.335565521257 755.590304243877 754.171846670618 771.162983861412 835.806678373464 900.099295474431 939.947259193706 991.706100671327 1049.12454071948 1024.0389411797 985.688019253245 948.12947009719 914.840212573066 890.297573792169 887.668485488466 897.465815271013 909.030999715089 911.248320192789 895.971712879666 861.605953884394 878.98111088111 934.046062654779 988.582231564945 1034.62918357444 1075.75319361783 1116.00557034851 1164.89617934317 1218.33940925069 1263.49434471211 1298.42238373162 1319.7030763718 1336.80568719238 1352.02160815732 1335.67033005278 1294.63690449447 1258.31163379275 1235.30029828684 1225.59360820634 1231.43174459568 1236.96551459045 1228.20999566689 1212.07932966764 1187.29765463885 1158.06241212295 1120.70003796459 1090.48516878198 1075.37202159682 1074.58954125848 1087.71002035355 1109.95440874426 1145.78268024761 1186.79231571825 1191.41543518429 1158.90370326208 1156.19486013398
828.778398506599 827.134474906608 810.095276800485 804.029574439309 826.395128108411 843.394819474333 849.571086997697 859.848594827443 856.920277884026 840.828276596877 823.986841202319 804.07865774845 770.866535868781 738.665822761542 702.809625129722 653.420581519111 626.929960002494 631.341841390932 667.622729346789 682.393404646778 698.166872850182 690.877878823132 692.430883991121 706.654734960833 711.180991799151 734.820599780708 762.843234808756 791.240720345516 815.712921987298 818.597598165549 802.762835177504 788.887245707184 774.284882848528 754.326502677561 729.143328146754 698.905622772433 670.774287871081 652.750098568364 636.311777487518 621.129091603789 603.790122892847 592.664888674845 588.334202095054 585.877509221891 582.902395496716 579.395530205819 579.316299396469 580.317733502395 581.94441710814 584.864206971478 582.964189499285 583.478017617765 584.170402867724 588.738953776412 595.303119572105 599.820766527126 596.93249663857 594.333948201561 593.3933567515 594.900559349635 594.680185090551 593.91273090757 594.885978714835 597.13449708651 599.432622208714 601.373580761494 605.83062198889 609.169212504886 608.414850440692 603.732907352353 606.084066702657 620.097758943008 632.211337213435 635.646410859442 638.881280902687 641.50123604318 642.799499116132 641.743594889638 644.996921874676 644.34650244927 645.498776527195 647.233463195223 626.321591709315 631.577732521649 634.401396676719 637.573899828412 639.592970531348 642.866121039687 646.477230304466 652.98040058872 665.820390010915 677.998396525616 683.363639073061 687.865658017307 703.393716038718 693.702053788304 673.787409093112 691.508907488365 719.171727572334 733.913623701617 731.528230536042 720.512561082838 695.194846960382 679.599241793461 683.972044111255 707.806309866142 731.261243603375 756.558443015984 795.841072849484 838.018388340688 861.127009546746 862.513152215452 834.006224287367 839.360313881226 839.965368953527 825.385694496576 812.130813936543 775.704850269093 754.349718882827 739.913462492751 727.472986970835 723.993650969212 724.855488727155 724.03713191492 737.683882226217 774.982883008919 824.332775008311 863.295556701899 909.684967977871 937.581412435633 923.910555883943 915.837828129964 893.967176706954 874.936321798107 864.163427719404 854.095583758341 855.799308632352 872.554114006806 882.445854200164 867.132528807617 859.332044311823 904.306480470247 934.241019821643 966.800605792145 1002.45049564125 1040.63645718257 1084.66831066913 1134.17492164194 1183.52845969911 1226.08991227829 1257.2805192247 1275.08442736199 1293.45203116288 1322.46203734603 1312.06045862799 1268.56476281817 1233.91050775031 1208.43263800404 1194.48978049535 1190.69127654702 1185.13055588599 1178.8516479681 1170.48106309425 1152.1217390206 1131.23536043009 1104.88491677329 1088.824054446 1077.17362805134 1062.88718070554 1064.61002048757 1076.08132038374 1116.41040804571 1149.57193274516 1156.71654003947 1127.24628945127 1109.42982471976
812.680652073624 817.688829790353 794.439950301646 780.201308121813 803.772010047485 820.996504502984 813.510881520259 835.009917025905 844.146958903328 836.354543604037 824.828053048413 804.942370727125 762.03298612112 709.50605081435 674.978075166302 644.653683058847 629.672920379668 630.795990869377 673.697434935153 696.120346483176 715.744064588144 722.471610561716 717.954099241083 729.744044823491 747.031154324384 753.136593395528 765.970481422332 785.852882029483 807.033865731272 815.415896425469 801.176563290901 788.039159029974 781.080751005536 763.205249459584 729.894713030853 697.486574197915 670.484232587484 655.826799096139 637.655747909972 618.466681377673 603.5014634254 593.502788081876 588.951966953598 585.872187920862 582.486702139271 579.595614550503 579.869074118714 581.037588203336 582.348966722559 585.117219850231 583.389487948262 583.725086339551 584.300906364947 592.135034997181 600.858765346606 601.706604100069 598.711755845803 596.575431244229 598.166664352114 602.329013296585 599.59139817058 596.057799701561 600.073585933457 607.211432478636 611.653786473723 613.387258943791 613.935219096614 612.245756962606 609.284535198813 605.902845756503 608.289471232928 618.460966610624 630.871867459713 637.191389856504 641.660198991426 646.209729702099 649.981441591378 649.379529730008 650.299705378075 649.300828917701 642.43191918071 635.454449720234 626.885471837346 629.629284163128 633.538500157033 635.675704502681 637.093848073435 640.542422580725 646.892978351405 657.165949071667 675.088036071908 683.744995443266 686.418397332011 697.959895263167 714.177998310473 715.652652704996 694.363120473193 725.370714550568 739.137216822023 738.399333741864 733.30634897858 720.472606564692 700.763938938437 683.018299360263 677.625434943664 688.270488788144 708.571770348218 730.665373417921 762.984188761151 786.177189589283 798.325934475016 795.210354146802 778.359434756508 784.375217716291 779.799080388614 767.55122946712 766.160508272447 757.741849153707 734.595755693358 725.464510488029 712.78741293501 708.275139357529 711.255540526203 717.445850134921 737.786293427186 746.298854235599 755.783054591128 784.547656226723 817.396134999125 824.510110551524 834.789382604249 836.985359244224 813.435814428602 802.857216515726 811.004555044174 814.816052197402 813.50179413376 828.830955118816 841.846930881089 837.427938956033 852.841497588234 886.101364203656 907.744210243209 936.527058011559 969.377614778053 1010.65040539213 1057.46965480155 1106.5969311287 1150.09254936924 1187.96128638281 1206.56485096721 1218.44570989682 1246.6437986771 1283.51001432758 1304.53456473376 1278.47970915133 1230.80294431635 1195.00947675343 1171.82260498206 1160.5108052933 1154.38353417564 1150.11651929761 1140.13542678416 1122.01157898067 1104.06991206773 1085.4641977104 1081.96196800197 1078.20452328048 1060.22362415033 1047.83988214839 1047.65224714568 1073.41814068893 1101.10413741914 1115.18652576821 1103.80796737463 1076.53095551951
